     18.485020        5.699680       -2.430510
   21.355021        5.700680       -2.162510
   21.227020        5.717680       -0.899510
   22.149019        4.877680       -2.818510
   22.846020        3.763680       -2.139510
     23.300020        2.811680       -3.270510
     23.813021        1.416680       -2.854510
   22.761021        0.458680       -2.304510
   24.459021        0.799680       -4.011510
   24.043020        4.310680       -1.268510
   24.430019        3.785680       -0.215510
   24.685020        5.447680       -1.722510
   25.665020        6.223680       -1.002510
     26.336020        7.351680       -1.791510
     26.946020        6.835680       -2.976510
   25.067020        6.894680        0.236490
   25.737020        7.119680        1.256490
   23.781019        7.293680        0.124490
   23.015020        7.845680        1.237490
   22.908020        7.112680        2.502490
   23.078020        7.595680        3.607490
   22.725019        5.780680        2.344490
   22.814020        4.820680        3.419490
     22.488020        3.434680        2.906490
     22.516020        2.366680        4.020490
     21.100019        3.391680        2.233490
   24.151020        4.780680        4.176490
   24.165020        4.918680        5.373490
   25.312019        4.832680        3.429490
   26.712021        4.933680        3.896490
     27.630020        4.664680        2.689490
     29.149019        4.776680        2.995490
   29.570021        3.764680        4.036490
   29.846020        4.582680        1.638490
   27.032021        6.202680        4.650490
   27.598021        6.242680        5.787490
   26.502020        7.300680        4.096490
   26.511021        8.587680        4.804490
     25.865021        9.658680        3.900490
     25.452021       10.965680        4.556490
   26.596020       11.728680        5.244490
   24.921021       11.919680        3.453490
   25.853020        8.558680        6.203490
   26.482019        8.920680        7.181490
   24.606020        8.103680        6.223490
   23.792021        8.007680        7.389490
   24.395020        7.130680        8.473490
   24.302019        7.375680        9.656490
   24.991020        5.959680        8.074490
   25.756020        5.085680        8.966490
     26.146021        3.898680        8.075490
     27.286020        3.016680        8.570490
     24.864019        3.074680        7.970490
   27.014021        5.738680        9.500490
   27.295019        5.691680       10.687490
   27.841021        6.466680        8.653490
   29.015020        7.205680        9.122490
     29.922020        7.555680        7.893490
     30.654020        8.867680        8.153490
     30.823021        6.311680        7.581490
   31.304020        6.269680        6.123490
   28.588020        8.357680        9.966490
   29.119020        8.525680       11.053490
   27.546021        9.117680        9.638490
   27.026020       10.188680       10.488490
     26.000019       11.005680        9.668490
     25.215019       12.159680       10.386490
   26.175020       13.304680       10.801490
   24.078020       12.626680        9.426490
   26.424021        9.733680       11.799490
   26.747021       10.267680       12.886490
   25.557020        8.692680       11.708490
   24.980021        8.078680       12.867490
   26.030020        7.512680       13.841490
   25.983021        7.840680       15.018490
   27.032021        6.745680       13.421490
   28.015020        6.103680       14.258490
     28.426020        4.748680       13.645490
     27.287020        3.789680       13.348490
   27.740021        2.761680       12.323490
   26.852020        3.043680       14.615490
   29.246019        7.012680       14.536490
   30.091021        6.760680       15.423490
   29.369020        8.190680       13.894490
   30.363020        9.135680       14.340490
     30.980021       10.015680       13.231490
     29.900021       10.600680       12.468490
   29.862020       10.036680       15.414490
   30.677019       10.383680       16.278490
   28.566019       10.407680       15.390490
   27.944019       11.290680       16.393490
     26.943020       12.306680       15.796490
     27.517019       13.255680       14.732490
   26.500019       14.286680       14.131490
   28.725019       14.067680       15.184490
   27.114019       10.502680       17.489491
   26.696020       11.049680       18.499491
   26.947020        9.157680       17.324490
   26.374020        8.310680       18.409491
     25.958019        6.917680       17.834490
     25.551020        5.887680       18.836491
   25.104019        4.570680       18.160490
   24.723021        3.556680       19.191490
     23.659019        3.537680       19.987490
     22.639021        4.367680       19.871490
     23.656019        2.750680       21.042490
   27.236019        8.244680       19.650490
   26.610020        8.327680       20.720490
   28.586020        8.104680       19.674490
   29.395020        7.648680       18.528490
   29.370020        8.060680       20.921490
     30.650021        7.369680       20.476490
     30.827021        7.665680       19.033489
   29.660021        9.472680       21.443489
   30.186020        9.528680       22.522490
   29.181021       10.498680       20.782490
   29.254021       11.869680       21.253490
     29.218019       12.855680       20.083490
     29.488020       14.324680       20.411489
   30.809019       14.487680       21.124491
   29.595020       15.096680       19.138491
   28.194019       12.192680       22.252489
   28.338020       13.167680       22.986490
   27.054020       11.427680       22.315491
   26.095020       11.527680       23.440491
     26.667021       11.205680       24.841490
     27.215019        9.776680       24.785490
     26.867020        8.965680       23.938490
   28.024019        9.435680       25.792490
   25.296021       12.782680       23.345490
   25.028021       13.431680       24.362490
   24.791019       13.204680       22.140490
   24.066019       14.451680       21.830490
     23.892019       14.635680       20.300489
     25.193020       14.783680       19.559490
   24.930019       14.750680       18.072491
   26.014021       16.122681       19.834490
   22.789021       14.632680       22.575491
   22.145020       13.704680       23.086491
   22.355021       15.897680       22.649490
   21.075020       16.173679       23.301491
     21.013020       17.718679       23.719490
   22.589020       19.071680       25.350491
     21.724020       18.002680       25.092489
   23.081020       18.935680       26.626490
   22.576019       17.817680       27.213490
   21.757021       17.212681       26.230490
   19.918020       15.771680       22.403490
   20.033020       15.680680       21.191490
   18.698021       15.552680       23.004490
   17.491020       15.154680       22.414490
   16.927019       16.033680       21.314489
   16.462021       15.522680       20.333490
   16.878019       17.387680       21.553490
   16.538019       18.376680       20.522490
     16.694019       19.852680       21.053490
     15.868020       20.255680       22.234489
     15.833020       21.445681       22.646490
     15.321020       19.343679       22.869490
   17.403021       18.329679       19.262489
   16.916019       18.470680       18.163490
   18.701019       18.107679       19.412491
   19.616020       17.938681       18.323490
     21.093019       18.048679       18.744490
     21.282021       19.349680       19.251490
   19.475019       16.605680       17.585489
   19.652020       16.516680       16.348490
   19.173019       15.516680       18.351490
   18.715019       14.211680       17.879490
     18.617020       13.181680       19.009489
     17.743019       11.970680       18.674490
     20.069019       12.755680       19.358490
   20.138020       11.753680       20.481489
   17.430019       14.281680       17.069490
   17.303020       13.747680       15.972490
   16.448021       14.971680       17.634489
   15.193020       15.214680       16.976490
     14.250020       16.072680       17.840490
     13.530020       15.259680       18.937490
     12.653020       16.328680       20.129490
   13.140020       15.472680       21.715490
   15.377020       15.952680       15.630490
   14.745020       15.632680       14.614490
   16.314020       16.961679       15.648490
   16.696020       17.831680       14.596490
     17.693020       18.829679       15.208490
     18.544020       19.750681       14.352490
   17.688021       20.868679       13.765490
   19.630020       20.378679       15.194490
   17.249020       17.211679       13.369490
   16.815020       17.395679       12.217490
   18.184019       16.298679       13.548490
   18.768021       15.425680       12.488490
     20.014021       14.677680       12.953490
     20.491020       13.731680       11.804490
     21.217020       15.649680       13.274490
   22.470020       14.870680       13.771490
   17.716021       14.440680       11.877490
   17.773020       14.123680       10.693490
   16.711020       13.994680       12.614490
   15.789020       12.924680       12.207490
     15.160020       12.185680       13.422490
     16.253019       11.708680       14.270490
   14.644020       13.508680       11.426490
   13.795020       12.826680       10.825490
   14.530020       14.869680       11.459490
   13.357020       15.632680       10.998490
     13.561020       17.102680       11.410490
     12.242020       17.816681       11.399490
   11.638020       18.179680       12.632490
   10.390020       18.883680       12.672490
      9.855020       19.294680       11.416490
      8.610020       19.876680       11.413490
   11.723020       18.322680       10.211490
   10.536020       19.084681       10.217490
   13.050020       15.375680        9.467490
   11.891020       15.105680        9.145490
   13.969020       15.323680        8.513490
   15.242020       16.080681        8.577490
   13.669020       14.853680        7.130490
     14.991020       15.179680        6.379490
     15.564020       16.354679        7.095490
   13.255020       13.346680        7.077490
   12.651020       12.892680        6.134490
   13.748020       12.560680        7.992490
   13.436020       11.187680        8.122490
   11.981020       10.921680        8.581490
   11.319020       10.025680        8.079490
   11.468020       11.710680        9.534490
   10.068020       11.834680        9.920490
      9.945020       12.702680       11.217490
     10.582020       12.091680       12.511490
   10.412020       10.566680       12.628490
      9.446020       10.148680       13.306490
     11.318020        9.850680       12.159490
    9.204020       12.324680        8.832490
    8.163020       11.772680        8.495490
    9.696020       13.407680        8.165490
    9.093020       13.985680        6.984490
      9.781020       15.286680        6.514490
      8.875020       16.101681        5.548490
    7.822020       16.921680        6.291490
    9.778020       16.907681        4.658490
    8.891020       13.048680        5.811490
    7.741020       12.897680        5.439490
    9.938020       12.329680        5.294490
    9.914020       11.269680        4.316490
     11.401020       10.693680        4.283490
     11.587020        9.608680        3.265490
   11.271020        9.844680        1.939490
   11.540020        8.893680        0.930490
     12.062020        7.609680        1.292490
   12.081020        8.319680        3.621490
   12.218020        7.306680        2.647490
    8.869020       10.263680        4.707490
    7.922020        9.933680        3.954490
    8.882020        9.760680        5.960490
    7.928020        8.734680        6.390490
      8.402020        8.150680        7.730490
      7.506020        6.942680        8.151490
      7.556020        5.562680        6.979490
    6.753020        4.386680        8.047490
    6.486020        9.268680        6.400490
    5.592020        8.570680        5.869490
    6.240020       10.545680        6.830490
    4.967020       11.261680        6.709490
      5.033020       12.499680        7.562490
      5.067020       12.186680        9.081490
    5.505020       13.422680        9.972490
    5.487020       12.933680       11.404490
      5.801020       13.731680       12.437490
      5.844020       15.045680       12.265490
      6.024020       13.251680       13.655490
    4.423020       11.549680        5.314490
    3.283020       11.272680        4.985490
    5.305020       12.008680        4.390490
    4.815020       12.149680        2.976490
      5.755020       13.021680        2.142490
      5.752020       14.415680        2.768490
      7.240020       12.527680        2.019490
    4.629020       10.819680        2.282490
    3.826020       10.710680        1.331490
    5.361020        9.751680        2.624490
    4.980020        8.380680        2.191490
      6.125020        7.366680        2.601490
      7.351020        7.447680        1.708490
    8.460020        6.665680        2.357490
    7.028020        6.935680        0.245490
    3.668020        7.948680        2.828490
    2.838020        7.394680        2.115490
    3.410020        8.154680        4.164490
    2.155020        7.847680        4.803490
      2.262020        7.850680        6.307490
      3.159020        6.718680        6.814490
    3.397020        6.721680        8.339490
    2.178020        6.499680        9.176490
      2.557020        6.520680       10.591490
    0.952020        8.611680        4.361490
   -0.204980        8.171680        4.379490
    1.121020        9.870680        3.940490
   -0.017980       10.702680        3.508490
      0.602020       12.159680        3.412490
     -0.379980       13.298680        3.141490
   -1.358980       13.489680        4.314490
    0.149020       14.674680        2.782490
   -0.575980       10.204680        2.188490
   -1.752980       10.420680        1.878490
    0.218020        9.500680        1.364490
   -0.243980        8.883680        0.099490
      0.903020        8.663680       -0.875510
      1.644020        9.959680       -1.403510
      2.869020        9.771680       -2.679510
    4.268020        9.205680       -1.616510
   -1.119980        7.543680        0.201490
   -1.929980        7.269680       -0.657510
   -0.914980        6.715680        1.270490
   -1.393980        5.329680        1.352490
     -0.756980        4.696680        2.555490
     -1.530980        3.378680        2.979490
      0.737020        4.484680        2.354490
    1.482020        3.988680        3.598490
   -2.942980        5.151680        1.303490
   -3.415980        4.324680        0.469490
   -3.746980        5.840680        2.109490
   -5.202980        5.725680        2.058490
     -5.860980        6.553680        3.195490
     -7.417980        6.574680        3.280490
   -7.939980        5.100680        3.444490
   -7.864980        7.492680        4.457490
   -5.949980        6.080680        0.790490
   -6.804980        5.275680        0.348490
   -5.665980        7.215680        0.087490
   -4.977980        8.379680        0.700490
   -6.281980        7.516680       -1.199510
     -5.839980        9.017680       -1.490510
     -4.674980        9.295680       -0.548510
   -5.660980        6.547680       -2.191510
   -6.394980        6.131680       -3.115510
   -4.367980        6.157680       -2.129510
   -3.765980        5.162680       -3.040510
     -2.302980        4.922680       -2.650510
     -1.499980        3.926680       -3.493510
   -1.439980        4.314680       -4.973510
   -0.039980        3.891680       -2.984510
   -4.458980        3.845680       -3.065510
   -4.805980        3.335680       -4.108510
   -4.691980        3.230680       -1.916510
   -5.500980        2.032680       -1.679510
     -5.594980        1.520680       -0.251510
     -6.567980        0.363680       -0.046510
     -4.211980        0.960680        0.121490
   -6.913980        2.044680       -2.346510
   -7.178980        1.197680       -3.162510
   -7.710980        3.104680       -2.045510
   -8.971980        3.321680       -2.731510
     -9.804980        4.499680       -2.116510
    -11.066980        4.814680       -2.950510
    -10.136980        4.200680       -0.618510
  -10.271980        5.475680        0.190490
   -8.859980        3.599680       -4.197510
   -9.541980        2.923680       -4.971510
   -7.992980        4.489680       -4.659510
   -7.891980        4.798680       -6.077510
     -7.065980        6.135680       -6.393510
     -5.717980        6.074680       -5.921510
   -7.339980        3.701680       -7.003510
   -7.898980        3.433680       -8.073510
   -6.203980        3.029680       -6.567510
   -5.645980        1.890680       -7.297510
     -4.170980        1.578680       -6.972510
     -3.990980        1.232680       -5.583510
   -6.370980        0.550680       -7.233510
   -6.565980       -0.047320       -8.277510
   -6.762980        0.042680       -6.082510
   -7.310980       -1.319320       -5.977510
     -7.271980       -1.813320       -4.465510
     -7.897980       -3.224320       -4.206510
   -7.391980       -4.304320       -5.096510
   -7.615980       -3.621320       -2.769510
   -8.693980       -1.469320       -6.569510
   -9.038980       -2.458320       -7.244510
   -9.504980       -0.461320       -6.348510
  -10.765980       -0.327320       -7.081510
    -11.596980        0.837680       -6.613510
    -12.877980        1.072680       -7.482510
    -11.913980        0.630680       -5.143510
  -12.786980        1.755680       -4.573510
  -10.507980       -0.277320       -8.567510
  -11.129980       -1.087320       -9.281510
   -9.536980        0.506680       -9.097510
   -9.282980        0.520680      -10.539510
     -8.314980        1.679680      -10.959510
   -8.669980       -0.827320      -11.111510
   -8.939980       -1.245320      -12.231510
   -7.764980       -1.528320      -10.347510
   -7.167980       -2.861320      -10.694510
   -8.167980       -3.946320      -10.793510
   -8.321980       -4.567320      -11.838510
   -8.941980       -4.153320       -9.681510
  -10.019980       -5.166320       -9.676510
    -10.633980       -5.376320       -8.242510
    -11.542980       -6.444320       -8.230510
  -11.125980       -4.906320      -10.729510
  -11.554980       -5.855320      -11.309510
  -11.510980       -3.657320      -10.983510
  -12.601980       -3.405320      -11.916510
    -13.097980       -1.956320      -11.758510
  -12.285980       -3.603320      -13.366510
  -13.126980       -3.887320      -14.202510
  -10.970980       -3.533320      -13.699510
  -10.538980       -3.743320      -15.100510
     -9.142980       -3.170320      -15.422510
     -9.144980       -1.746320      -15.244510
  -10.382980       -5.261320      -15.370510
  -10.194980       -5.621320      -16.534510
  -10.464980       -6.146320      -14.385510
  -10.445980       -7.573320      -14.491510
     -9.614980       -8.148320      -13.255510
     -8.137980       -7.728320      -13.152510
   -7.689980       -8.071320      -11.671510
   -7.307980       -8.505320      -14.137510
  -11.847980       -8.109320      -14.499510
  -12.598980       -7.738320      -13.582510
  -12.274980       -8.892320      -15.499510
  -13.630980       -9.425320      -15.583510
    -13.753980      -10.207320      -16.910509
    -15.079980      -10.951320      -17.171511
    -15.475980      -11.851320      -16.394510
  -15.789980      -10.572320      -18.258511
  -13.945980      -10.246320      -14.353510
  -13.058980      -10.902320      -13.810510
  -15.175980      -10.389320      -13.893510
  -15.629980      -11.216320      -12.769510
    -17.179979      -11.273320      -12.749510
  -15.010980      -12.583320      -12.662510
  -14.425980      -13.020320      -11.658510
  -15.016980      -13.259320      -13.857510
  -14.342980      -14.527320      -13.947510
    -14.626980      -15.264320      -15.277510
    -16.033991      -15.179320      -15.920510
  -16.064989      -15.862320      -17.358509
  -17.473980      -15.650320      -17.968510
    -17.500980      -14.358320      -18.694510
  -12.817980      -14.398320      -13.875510
  -12.170980      -15.235320      -13.290510
  -12.162980      -13.345320      -14.496510
  -10.739980      -13.194320      -14.547510
    -10.300980      -12.270320      -15.682510
     -8.800980      -11.938320      -15.681510
     -7.718980      -13.362320      -16.112511
   -6.334980      -12.306320      -16.658510
  -10.165980      -12.763320      -13.225510
   -9.144980      -13.179320      -12.741510
  -10.912980      -11.892320      -12.549510
  -10.718980      -11.405320      -11.229510
    -11.725980      -10.380320      -10.996510
    -11.531980       -9.475320       -9.777510
    -10.786980       -8.492320       -9.764510
  -12.299980       -9.782320       -8.725510
  -10.685980      -12.502320      -10.189510
   -9.846980      -12.635320       -9.329510
  -11.590980      -13.471320      -10.335510
  -11.622980      -14.806320       -9.680510
  -10.385980      -15.597320       -9.882510
   -9.775980      -16.086321       -8.931510
  -10.009980      -15.839320      -11.154510
   -8.845980      -16.553320      -11.621510
     -8.864980      -16.747320      -13.159510
    -10.004980      -17.601320      -13.623510
  -10.038980      -17.759319      -15.165510
  -10.273980      -16.499319      -15.985510
    -10.177980      -16.906321      -17.386511
   -7.481980      -16.003321      -11.211510
   -6.621980      -16.732321      -10.788510
   -7.331980      -14.665320      -11.259510
   -6.200980      -13.942320      -10.612510
     -6.014980      -12.544320      -11.172510
     -4.937980      -11.635320      -10.482510
     -5.854980      -12.612320      -12.747510
   -4.804980      -13.552320      -13.260510
   -6.242980      -14.034320       -9.102510
   -5.170980      -14.088320       -8.490510
   -7.426980      -13.951320       -8.419510
   -7.528980      -14.217320       -6.992510
     -8.981980      -14.068320       -6.527510
   -7.101980      -15.574320       -6.513510
   -6.354980      -15.670320       -5.545510
   -7.528980      -16.647320       -7.179510
   -7.050980      -18.001320       -6.927510
     -7.862980      -19.064320       -7.679510
     -9.372980      -19.031321       -7.274510
  -10.169980      -19.754320       -8.376510
   -9.670980      -19.787319       -5.968510
   -5.567980      -18.245319       -7.208510
   -4.852980      -18.811319       -6.384510
   -4.992980      -17.731319       -8.333510
   -3.581980      -17.770321       -8.601510
     -3.243980      -17.144320      -10.018510
     -3.691980      -17.981319      -11.169510
   -3.571980      -17.300320      -12.535510
   -4.049980      -18.298321      -13.547510
     -4.812980      -18.020321      -14.618510
     -4.813980      -16.828320      -15.107510
     -5.561980      -18.849319      -15.203510
   -2.754980      -17.120319       -7.520510
   -1.797980      -17.717319       -6.965510
   -3.174980      -15.909320       -7.133510
   -2.590980      -15.011320       -6.164510
     -3.379980      -13.686320       -6.030510
     -3.137980      -12.931320       -7.164510
     -2.881980      -12.819320       -4.910510
   -2.558980      -15.689320       -4.795510
   -1.548980      -15.761320       -4.125510
   -3.642980      -16.303320       -4.332510
   -3.769980      -17.107321       -3.086510
     -5.227980      -17.636320       -2.948510
     -5.564980      -18.425320       -1.643510
   -5.324980      -17.696320       -0.317510
   -7.016980      -18.875320       -1.758510
   -2.877980      -18.295321       -2.929510
   -2.174980      -18.350321       -1.927510
   -2.793980      -19.186319       -3.914510
   -1.868980      -20.384319       -3.882510
     -2.327980      -21.432320       -4.914510
     -2.053980      -21.074320       -6.445510
     -1.621980      -22.800320       -4.742510
   -0.428980      -20.122320       -3.860510
    0.321020      -20.780319       -3.122510
    0.034020      -19.148319       -4.647510
    1.364020      -18.612320       -4.596510
      1.630020      -17.628321       -5.807510
      1.814020      -18.414320       -7.067510
    1.127020      -18.012320       -8.264510
    1.413020      -18.594320       -9.484510
      2.499020      -19.542320       -9.525510
      2.928020      -19.992319      -10.755510
    2.844020      -19.328320       -7.124510
    3.227020      -19.844320       -8.360510
    1.729020      -17.813320       -3.324510
    2.752020      -18.069321       -2.706510
    0.841020      -16.911320       -2.847510
    1.007020      -16.332319       -1.493510
     -0.170980      -15.343320       -1.128510
     -0.191980      -14.008320       -1.890510
    0.904020      -13.450320       -2.587510
    0.932020      -12.133320       -3.005510
     -0.202980      -11.303320       -2.787510
   -1.317980      -13.168320       -1.707510
   -1.310980      -11.842320       -2.160510
    1.072020      -17.336321       -0.401510
    1.968020      -17.259319        0.440490
    0.237020      -18.353319       -0.416510
    0.110020      -19.422319        0.537490
     -1.028980      -20.332319        0.101490
    1.347020      -20.322321        0.564490
    1.885020      -20.709320        1.631490
    1.898020      -20.742319       -0.572510
    3.067020      -21.599319       -0.645510
      3.424020      -21.922319       -2.098510
      2.420020      -22.654320       -2.744510
    4.287020      -20.967319       -0.050510
    5.000020      -21.614321        0.691490
    4.586020      -19.698320       -0.282510
    5.650020      -18.984320        0.368490
      6.000020      -17.662319       -0.308510
      5.022020      -16.656321       -0.111510
      6.257020      -17.900320       -1.800510
    5.362020      -18.743320        1.839490
    6.236020      -18.867319        2.691490
    4.098020      -18.476320        2.214490
    3.786020      -18.406321        3.638490
      2.268020      -18.073320        3.911490
      1.939020      -16.835320        3.269490
    4.090020      -19.666321        4.452490
    4.792020      -19.562321        5.445490
    3.658020      -20.839319        3.965490
    3.899020      -22.119320        4.566490
      2.959020      -23.132320        3.930490
      2.957020      -24.471319        4.570490
    3.585020      -25.511320        3.856490
    3.559020      -26.836321        4.388490
      2.763020      -27.076321        5.501490
    2.259020      -24.738319        5.778490
    2.119020      -26.057320        6.167490
    5.409020      -22.527321        4.517490
    6.016020      -22.905319        5.512490
    6.047020      -22.172319        3.368490
    7.517020      -22.289320        3.224490
      7.911020      -22.012320        1.741490
      9.429020      -21.909321        1.565490
   10.196020      -23.057320        1.797490
   11.591020      -23.075319        1.567490
     12.290020      -21.901320        1.178490
   10.120020      -20.718321        1.158490
   11.537020      -20.711321        1.004490
    8.266020      -21.570320        4.280490
    9.061020      -22.115320        5.019490
    8.016020      -20.237320        4.397490
    8.732020      -19.441320        5.334490
      8.468020      -17.885321        5.343490
      9.238020      -17.213320        4.163490
     10.215020      -16.537319        4.332490
    8.691020      -17.476320        2.904490
    8.548020      -19.868320        6.795490
    9.521020      -19.906321        7.600490
    7.340020      -20.338320        7.156490
    7.077020      -20.891319        8.498490
      5.591020      -21.296320        8.709490
    7.977020      -22.103319        8.858490
    8.510020      -22.230320        9.946490
    8.048020      -23.075319        7.894490
    8.863020      -24.242319        7.891490
      8.476020      -25.019320        6.586490
   10.334020      -23.930321        7.909490
   11.155020      -24.525320        8.591490
   10.767020      -22.882320        7.124490
   12.159020      -22.418320        7.035490
     12.274020      -21.557320        5.761490
     13.686020      -20.910320        5.465490
   14.765020      -21.958321        5.162490
   13.631020      -19.880320        4.353490
   12.660020      -21.719320        8.322490
   13.699020      -22.026320        8.846490
   11.809020      -20.789320        8.892490
   12.036020      -20.241320       10.238490
   12.200020      -21.329321       11.256490
   13.146020      -21.306320       12.017490
   11.267020      -22.345320       11.360490
   11.541020      -23.441320       12.297490
     10.352020      -24.425320       12.324490
     10.668020      -25.662319       13.217490
      9.072020      -23.748320       12.847490
    7.793020      -24.533319       12.460490
   12.794020      -24.253321       11.995490
   13.575020      -24.501320       12.868490
   13.037020      -24.688320       10.719490
   14.152020      -25.481319       10.403490
     14.139020      -25.913321        8.915490
   15.488020      -24.843321       10.587490
   16.389021      -25.537319       11.080490
   15.659020      -23.612320       10.220490
   16.934019      -22.958321       10.468490
     16.982019      -21.475321        9.868490
     16.816019      -21.372320        8.355490
   16.245020      -19.965321        8.089490
   18.118019      -21.662319        7.707490
   17.269020      -22.817320       11.963490
   18.427019      -22.853319       12.314490
   16.311020      -22.637320       12.844490
   16.541019      -22.669319       14.281490
     15.346020      -22.153320       15.056490
     15.526020      -22.135321       16.590490
     15.053020      -20.698320       14.673490
   16.920019      -24.025320       14.797490
   17.806021      -24.193319       15.675490
   16.370020      -25.148319       14.308490
   16.819019      -26.492319       14.716490
     15.787020      -27.555321       14.380490
     14.389020      -27.338320       14.983490
   13.253020      -28.225321       14.507490
   14.521020      -27.527321       16.481489
   18.215019      -26.851320       14.139490
   19.019020      -27.425320       14.909490
   18.535021      -26.458321       12.871490
   19.864019      -26.580320       12.297490
     19.878019      -26.201321       10.841490
     21.216021      -26.284321       10.042490
   21.613020      -27.819321       10.058490
   21.123020      -25.818319        8.643490
   20.932020      -25.756321       13.043490
   22.004021      -26.247320       13.417490
   20.607019      -24.523319       13.341490
   21.671021      -23.551319       13.769490
     21.551020      -22.250320       12.997490
     22.667021      -21.283319       13.400490
     21.451019      -22.413321       11.470490
   22.785021      -22.904320       10.834490
   21.635019      -23.369320       15.246490
   22.584021      -22.786320       15.842490
   20.584021      -23.763321       15.990490
   20.517019      -23.804319       17.406490
     21.276020      -25.028320       18.011490
   20.043020      -26.623320       19.598490
     20.795019      -25.502319       19.346491
   19.879021      -26.745319       20.958490
   20.481020      -25.751320       21.566490
   21.091021      -25.012320       20.610491
   20.866020      -22.450319       18.045490
   21.798019      -22.493320       18.811489
   20.253019      -21.249319       17.784491
   19.265020      -20.990320       16.779490
   20.689020      -19.992319       18.402491
     19.890020      -18.916321       17.647490
     18.656019      -19.655319       17.128490
   20.426020      -19.965321       19.874491
   21.014021      -19.103319       20.565491
   19.561020      -20.818319       20.507490
   19.276020      -20.714319       21.912491
   20.415020      -21.197321       22.805490
   21.032021      -22.230320       22.515490
   20.682020      -20.498320       23.904490
   21.610020      -20.751320       24.940491
     22.566019      -19.563320       25.119490
     23.540020      -19.646320       26.316490
     23.617020      -20.652321       27.023491
   24.172020      -18.485319       26.597490
   20.803020      -21.042320       26.231489
   20.145020      -20.135321       26.707491
   20.802019      -22.209320       26.800489
   21.375019      -23.391319       26.113489
   19.980021      -22.578320       27.898491
     20.114019      -24.093321       28.091490
     20.545019      -24.571320       26.669491
   20.309019      -21.797319       29.148491
   19.397020      -21.731319       29.927490
   21.544020      -21.177320       29.315491
   21.810020      -20.424320       30.492491
     23.392019      -20.264320       30.581490
     24.096020      -21.588320       30.592489
     23.473021      -22.642321       30.938490
     25.315020      -21.602320       30.393490
   21.217020      -18.997320       30.460489
   20.860020      -18.387320       31.474489
   20.954020      -18.555321       29.223490
   20.227020      -17.303320       28.930490
     20.146021      -16.922319       27.386490
     19.704020      -15.452320       27.093491
   20.728020      -14.479320       27.593491
   19.422020      -15.234320       25.594490
   18.870020      -17.234320       29.596491
   18.096020      -18.196320       29.531490
   18.526020      -16.093321       30.164490
   17.276020      -15.777320       30.850491
     17.227020      -16.328320       32.304489
   19.523020      -16.391319       33.424492
     18.295019      -15.782320       33.221489
   20.108021      -15.708320       34.412491
   19.326019      -14.699320       34.849491
   18.176020      -14.798320       34.096489
   17.127020      -14.330320       30.867491
   18.129021      -13.628320       30.777491
   15.953020      -13.794320       31.051491
   15.914020      -12.381320       31.412491
     15.284020      -11.579320       30.242491
     15.450020      -10.092320       30.349489
     16.384020       -9.579320       31.005489
   14.479020       -9.331320       29.814489
   15.098020      -12.285320       32.706490
   15.374020      -11.470320       33.568489
   14.107020      -13.198320       32.920490
   13.469020      -13.341320       34.232491
     14.479020      -13.662320       35.333481
   12.361020      -12.361320       34.624489
   11.993020      -12.259320       35.785488
   11.750020      -11.681320       33.641491
   10.598020      -10.776320       33.769489
     10.451020       -9.884320       32.476490
     11.304020       -8.639320       32.463490
     11.602020       -8.047320       33.542488
     11.604020       -8.158320       31.315491
    9.282020      -11.480320       34.144489
    8.970020      -12.606320       33.699490
    8.410020      -10.755320       34.909481
    7.235020      -11.332320       35.562481
      6.690020      -10.298320       36.582489
      7.621020       -9.956320       37.722481
      8.713020      -10.602320       37.905491
      7.335020       -9.022320       38.500481
    6.057020      -11.804320       34.706490
    5.800020      -11.317320       33.632488
    5.391020      -12.815320       35.224491
    4.161020      -13.306320       34.637489
      4.440020      -14.751320       34.112492
      3.359020      -15.432320       33.271488
    2.565020      -14.499320       32.321491
    1.671020      -15.299320       31.458490
      0.766020      -14.745320       30.659491
      0.763020      -13.479320       30.295490
     -0.191980      -15.501320       30.171490
    3.063020      -13.250320       35.677490
    3.085020      -14.016320       36.651489
    1.979020      -12.491320       35.439491
    0.737020      -12.512320       36.195492
      0.297020      -11.110320       36.707489
     -0.792980      -11.122320       37.633492
   -0.260980      -13.045320       35.136490
   -0.144980      -12.787320       33.949490
   -1.292980      -13.829320       35.523491
   -2.299980      -14.318320       34.562481
     -3.246980      -15.396320       35.101490
     -3.811980      -15.083320       36.397491
     -2.498980      -16.731319       35.271488
   -3.112980      -13.190320       33.916481
   -3.603980      -12.297320       34.593491
   -3.269980      -13.232320       32.579491
   -4.128980      -12.331320       31.794491
     -4.134980      -12.743320       30.290489
     -2.732980      -12.822320       29.796490
     -2.352980      -13.940320       29.278490
     -2.013980      -11.810320       29.893490
   -5.530980      -12.152320       32.382488
   -6.068980      -13.152320       32.901489
   -6.134980      -10.971320       32.298481
   -7.433980      -10.694320       32.913490
     -7.955980       -9.279320       32.574490
     -7.125980       -8.150320       33.253490
   -7.560980       -7.798320       34.679489
   -6.737980       -6.578320       35.056492
     -6.802980       -5.984320       36.259491
     -7.536980       -6.426320       37.264488
     -5.989980       -4.961320       36.520481
   -8.581980      -11.647320       32.643490
   -9.275980      -11.999320       33.590481
   -8.791980      -12.091320       31.336491
   -9.817980      -12.976320       30.989491
    -10.815980      -12.249320       29.980490
    -11.369980      -10.902320       30.509489
  -12.156980      -10.991320       31.861490
  -12.708980       -9.692320       32.128490
    -12.851980       -9.201320       33.364491
    -12.810980       -9.931320       34.449490
    -13.128980       -7.913320       33.525490
   -9.204980      -14.223320       30.403490
   -9.854980      -15.024320       29.720490
   -7.859980      -14.480320       30.593491
   -7.096980      -15.350320       29.716490
     -7.341980      -16.832319       29.974489
   -7.086980      -14.960320       28.233490
   -7.785980      -14.073320       27.797489
   -6.209980      -15.633320       27.473490
   -6.059980      -15.483320       26.062490
     -4.839980      -14.676320       25.600491
     -4.825980      -14.459320       24.058491
     -4.874980      -13.320320       26.275490
   -6.111980      -16.938320       25.565491
   -5.379980      -17.827320       26.113489
   -6.973980      -17.259319       24.618490
   -7.128980      -18.545321       23.990490
     -8.445980      -19.255320       24.462490
     -8.512980      -19.502319       25.966490
     -7.631980      -19.963320       26.656490
   -9.684980      -19.032320       26.511490
   -6.994980      -18.479321       22.482491
   -7.366980      -17.536320       21.816490
   -6.391980      -19.499319       21.819490
   -6.035980      -19.530319       20.397490
     -5.296980      -20.805321       20.025490
     -4.585980      -20.819321       18.611490
   -3.207980      -21.563320       18.724489
   -5.518980      -21.549320       17.587490
   -7.204980      -19.353319       19.461491
   -7.202980      -18.485319       18.554489
   -8.294980      -20.115320       19.602489
   -9.366980      -19.998320       18.621490
    -10.306980      -21.172319       18.654490
     -9.580980      -22.555321       18.462490
  -10.484980      -23.673321       18.911489
   -9.213980      -22.787319       16.934490
  -10.197980      -18.714319       18.788490
  -10.614980      -18.118320       17.838490
  -10.310980      -18.207319       20.021490
  -10.818980      -16.851320       20.245489
    -10.998980      -16.642321       21.783489
    -12.227980      -17.377319       22.327490
    -12.301980      -17.589319       23.555490
    -13.212980      -17.581320       21.542490
   -9.878980      -15.779320       19.779490
  -10.411980      -14.824320       19.186489
   -8.550980      -15.866320       19.926491
   -7.578980      -14.972320       19.351490
     -6.185980      -15.336320       19.754490
     -6.130980      -15.182320       21.154490
   -7.617980      -14.930320       17.817490
   -7.490980      -13.881320       17.211491
   -7.795980      -16.079321       17.166491
   -7.912980      -16.127319       15.706490
     -7.869980      -17.601320       15.173490
     -6.479980      -18.034321       14.550490
   -5.381980      -17.970320       15.656490
   -6.614980      -19.435320       13.885490
   -9.183980      -15.489320       15.228490
   -9.166980      -14.683320       14.310490
  -10.255980      -15.731320       15.918490
  -11.550980      -15.008320       15.733490
    -12.626980      -15.607320       16.640490
    -13.087980      -16.956320       16.270491
  -13.769980      -17.610319       17.539490
  -14.168980      -17.013321       15.207490
  -11.476980      -13.509320       15.868490
  -12.117980      -12.770320       15.083490
  -10.723980      -13.033320       16.825491
  -10.528980      -11.638320       17.109489
     -9.922980      -11.542320       18.547489
     -9.617980      -10.092320       18.944490
    -10.295980       -9.097320       18.535490
     -8.762980       -9.967320       19.891491
   -9.757980      -10.955320       15.990490
  -10.173980       -9.889320       15.418490
   -8.677980      -11.596320       15.497490
   -8.039980      -11.133320       14.275490
     -6.652980      -11.763320       14.115490
     -5.630980      -11.415320       15.273490
   -4.307980      -12.162320       15.066490
   -5.339980       -9.902320       15.382490
   -8.875980      -11.300320       13.003490
   -8.925980      -10.459320       12.125490
   -9.601980      -12.405320       12.909490
  -10.341980      -12.878320       11.773490
  -11.539980      -12.075320       11.423490
  -11.977980      -12.063320       10.279490
  -12.089980      -11.315320       12.410490
  -13.113980      -10.355320       12.179490
    -13.760980      -10.092320       13.544490
    -14.752980      -11.209320       14.029490
  -15.149980      -11.123320       15.537490
  -16.138981      -10.032320       15.674490
    -16.963980       -9.845320       16.692490
    -16.936979      -10.635320       17.708490
    -17.926979       -8.954320       16.585489
  -12.605980       -8.974320       11.680490
  -13.362980       -8.094320       11.194490
  -11.256980       -8.721320       11.708490
  -10.718980       -7.452320       11.305490
     -9.267980       -7.207320       11.916490
     -9.233980       -7.038320       13.427490
     -8.553980       -7.781320       14.145490
  -10.092980       -6.173320       13.968490
  -10.573980       -7.355320        9.798490
  -10.400980       -6.297320        9.253490
  -10.615980       -8.526320        9.071490
  -10.770980       -8.742320        7.598490
    -10.746980      -10.270320        7.347490
    -10.808980      -10.555320        5.844490
     -9.394980      -10.809320        7.952490
  -12.073980       -8.159320        7.006490
  -12.091980       -7.548320        5.981490
  -13.206980       -8.360320        7.683490
  -14.531980       -7.833320        7.264490
    -15.681980       -8.896320        7.663490
    -15.157980      -10.290320        7.251490
  -15.057980      -11.328320        8.186490
  -14.422980      -12.514320        7.788490
    -13.991980      -12.712320        6.478490
  -14.842980      -10.524320        5.884490
  -14.248980      -11.749320        5.510490
  -14.816980       -6.545320        8.015490
  -15.198980       -6.650320        9.169490
  -14.784980       -5.320320        7.453490
  -14.162980       -4.987320        6.166490
  -15.223980       -4.098320        8.135490
    -14.640980       -2.925320        7.303490
    -14.588980       -3.505320        5.919490
  -16.745979       -4.056320        8.307490
  -17.452980       -3.482320        7.455490
  -17.279980       -4.634320        9.377490
  -18.646980       -4.524320        9.698490
    -18.916981       -5.333320       11.023490
    -18.105980       -4.949320       12.263490
    -17.363979       -3.935320       12.254490
    -18.315981       -5.593320       13.283490
  -19.205980       -3.087320        9.731490
  -20.252979       -2.763320        9.146490
  -18.367979       -2.249320       10.316490
  -18.493980       -0.836320       10.361490
    -18.262980       -0.539320       11.869490
    -18.541981        0.916680       12.242490
    -18.459980        1.861680       11.454490
  -18.806980        1.109680       13.551490
  -17.552980       -0.156320        9.419490
  -16.334980       -0.079320        9.595490
  -18.075979        0.465680        8.418490
  -17.414980        1.212680        7.406490
    -18.182980        1.435680        6.131490
    -17.271980        1.537680        4.844490
  -16.816980        0.146680        4.391490
  -18.017981        2.254680        3.661490
  -16.965981        2.601680        7.948490
  -15.908980        3.173680        7.523490
  -17.701981        3.244680        8.829490
  -17.408979        4.622680        9.381490
    -18.687981        5.314680       10.010490
    -19.848980        5.577680        9.040490
  -21.019979        6.091680        9.587490
  -22.161980        6.351680        8.801490
    -21.988979        6.150680        7.410490
  -19.783979        5.331680        7.670490
  -20.820980        5.641680        6.868490
  -16.212980        4.718680       10.259490
  -15.494980        5.700680       10.336490
  -15.960980        3.616680       10.996490
  -14.719980        3.504680       11.788490
    -14.888980        2.615680       12.991490
    -15.930980        3.124680       14.010490
  -15.695980        4.563680       14.488490
    -14.756980        4.756680       15.258490
  -16.524981        5.582680       14.171490
  -13.434980        3.064680       10.966490
  -12.322980        3.446680       11.289490
  -13.640980        2.202680        9.945490
  -12.660980        1.291680        9.405490
    -13.180980        0.429680        8.230490
  -11.337980        1.916680        9.024490
  -10.242980        1.355680        9.164490
  -11.378980        3.140680        8.413490
  -10.193980        3.823680        7.887490
    -10.509980        4.727680        6.692490
    -11.523980        5.732680        6.919490
   -9.470980        4.615680        8.947490
   -8.282980        4.965680        8.876490
  -10.262980        4.909680       10.052490
   -9.819980        5.814680       11.046490
    -11.036980        6.722680       11.367490
    -10.618980        7.786680       12.455490
    -11.664980        7.321680       10.081490
  -12.638980        8.454680       10.304490
   -9.312980        5.068680       12.301490
   -8.408980        5.518680       13.025490
   -9.942980        3.927680       12.612490
   -9.791980        3.081680       13.809490
    -11.089980        3.243680       14.768490
    -11.422980        4.657680       15.232490
  -10.406980        5.229680       16.213490
    -10.629980        5.091680       17.410490
   -9.402980        6.002680       15.760490
   -9.803980        1.551680       13.485490
  -10.350980        1.132680       12.426490
   -9.195980        0.780680       14.414490
   -9.347980       -0.697320       14.371490
     -8.003980       -1.393320       14.370490
     -7.173980       -1.200320       13.105490
   -5.709980       -1.551320       13.363490
     -5.224980       -2.717320       13.287490
   -4.894980       -0.498320       13.628490
  -10.097980       -1.199320       15.553490
   -9.984980       -0.752320       16.679489
  -10.895980       -2.262320       15.300490
  -11.632980       -2.921320       16.349489
    -12.888980       -3.528320       15.806490
  -10.847980       -3.936320       17.116489
   -9.910980       -4.564320       16.537491
  -11.276980       -4.279320       18.377489
  -10.723980       -5.443320       19.063490
     -9.403980       -5.198320       19.774490
   -9.293980       -4.787320       22.285490
     -9.565980       -4.305320       21.011490
   -9.486980       -3.750320       23.095490
   -9.751980       -2.607320       22.458490
   -9.813980       -2.987320       21.163490
  -11.812980       -5.971320       20.007490
  -12.735980       -5.267320       20.323490
  -11.758980       -7.296320       20.392490
